ncols         76
nrows         48
xllcorner     422950.000000
yllcorner     197600.000000
cellsize      50.000000
NODATA_value  -9999.000000
75.000000 74.596000 74.468000 74.358000 74.249000 74.182000 74.079000 73.984000 73.903000 73.796000 73.691000 73.587000 73.484000 73.552000 73.476000 73.375000 73.265000 73.156000 73.098000 73.086000 72.988000 72.891000 72.793000 72.696000 72.601000 72.497000 72.394000 72.262000 72.132000 72.022000 71.917000 71.763000 71.611000 71.465000 71.321000 71.184000 71.049000 70.930000 70.682000 70.596000 70.591000 70.481000 70.482000 70.439000 70.389000 70.361000 70.324000 70.284000 70.250000 70.240000 70.230000 70.216000 70.192000 70.158000 70.133000 70.100000 70.069000 70.064000 70.060000 70.056000 70.051000 70.051000 70.000000 69.853000 69.843000 69.827000 69.801000 69.731000 69.527000 69.555000 69.473000 69.392000 69.325000 69.162000 68.998000 68.835000 
74.868000 74.453000 74.332000 74.216000 74.110000 74.073000 74.010000 73.912000 73.791000 73.685000 73.581000 73.479000 73.378000 73.449000 73.396000 73.321000 73.223000 73.112000 73.004000 72.959000 72.943000 72.849000 72.752000 72.654000 72.557000 72.462000 72.358000 72.255000 72.119000 71.986000 71.874000 71.770000 71.609000 71.452000 71.301000 71.153000 71.013000 70.876000 70.744000 70.531000 70.453000 70.440000 70.385000 70.346000 70.303000 70.271000 70.241000 70.198000 70.167000 70.160000 70.153000 70.144000 70.128000 70.096000 70.066000 70.050000 70.000000 70.000000 70.000000 70.000000 70.000000 70.000000 70.000000 69.840000 69.706000 69.767000 69.729000 69.702000 69.446000 69.418000 69.391000 69.332000 69.491000 69.213000 69.299000 69.018000 
74.737000 74.311000 74.197000 74.083000 73.970000 73.935000 73.899000 73.839000 73.751000 73.643000 73.537000 73.432000 73.330000 73.347000 73.242000 73.240000 73.166000 73.071000 72.960000 72.852000 72.820000 72.800000 72.711000 72.616000 72.518000 72.421000 72.326000 72.221000 72.117000 71.976000 71.838000 71.726000 71.622000 71.453000 71.288000 71.131000 70.979000 70.835000 70.696000 70.558000 70.382000 70.313000 70.289000 70.257000 70.212000 70.180000 70.160000 70.120000 70.083000 70.080000 70.077000 70.072000 70.064000 70.048000 70.000000 70.000000 70.000000 69.919000 69.856000 69.837000 69.829000 69.823000 69.727000 69.724000 69.680000 69.559000 69.657000 69.636000 69.365000 69.428000 69.454000 69.450000 69.331000 69.590000 69.482000 69.288000 
74.605000 74.169000 74.061000 73.949000 73.838000 73.796000 73.762000 73.727000 73.674000 73.597000 73.497000 73.391000 73.286000 73.244000 73.141000 73.092000 73.084000 73.011000 72.920000 72.809000 72.700000 72.681000 72.658000 72.573000 72.480000 72.381000 72.285000 72.190000 72.083000 71.979000 71.832000 71.688000 71.575000 71.472000 71.292000 71.118000 70.954000 70.795000 70.626000 70.500000 70.372000 70.234000 70.193000 70.171000 70.128000 70.090000 70.080000 70.060000 70.000000 70.000000 70.000000 70.000000 70.000000 70.000000 70.000000 69.890000 69.900000 69.825000 69.758000 69.750000 69.676000 69.661000 69.651000 69.607000 69.513000 69.520000 69.413000 69.591000 69.283000 69.379000 69.474000 69.569000 69.569000 69.569000 69.472000 69.342000 
74.474000 74.027000 73.926000 73.811000 73.702000 73.665000 73.625000 73.592000 73.556000 73.485000 73.447000 73.353000 73.246000 73.141000 73.040000 72.940000 72.941000 72.929000 72.857000 72.769000 72.658000 72.549000 72.543000 72.516000 72.436000 72.343000 72.245000 72.148000 72.054000 71.946000 71.840000 71.685000 71.534000 71.421000 71.272000 71.086000 70.905000 70.740000 70.579000 70.418000 70.306000 70.186000 70.096000 70.086000 70.064000 70.000000 70.000000 70.000000 70.000000 70.000000 70.000000 69.831000 69.797000 69.850000 69.856000 69.784000 69.693000 69.604000 69.551000 69.657000 69.586000 69.517000 69.498000 69.491000 69.409000 69.329000 69.360000 69.268000 69.359000 69.450000 69.580000 69.493000 69.612000 69.558000 69.558000 69.439000 
74.342000 73.885000 73.790000 73.691000 73.579000 73.530000 73.495000 73.456000 73.438000 73.373000 73.341000 73.299000 73.143000 73.040000 72.938000 72.902000 72.802000 72.791000 72.774000 72.703000 72.619000 72.507000 72.398000 72.405000 72.376000 72.296000 72.207000 72.109000 72.012000 71.919000 71.808000 71.701000 71.535000 71.374000 71.260000 71.074000 70.878000 70.687000 70.493000 70.355000 70.209000 70.153000 70.000000 70.000000 70.000000 70.000000 69.784000 69.784000 69.734000 69.695000 69.695000 69.593000 69.664000 69.700000 69.715000 69.694000 69.631000 69.544000 69.458000 69.480000 69.493000 69.424000 69.362000 69.375000 69.354000 69.279000 69.205000 69.200000 69.200000 69.461000 69.580000 69.590000 69.677000 69.601000 69.418000 69.213000 
74.211000 73.742000 73.654000 73.556000 73.461000 73.407000 73.361000 73.327000 73.319000 73.261000 73.235000 73.193000 73.152000 72.937000 72.839000 72.741000 72.765000 72.658000 72.642000 72.619000 72.549000 72.470000 72.358000 72.248000 72.268000 72.236000 72.156000 72.071000 71.973000 71.877000 71.784000 71.670000 71.561000 71.379000 71.203000 71.030000 70.878000 70.667000 70.461000 70.247000 70.333000 70.000000 70.000000 69.887000 70.050000 70.213000 69.890000 69.567000 69.410000 69.553000 69.390000 69.786000 69.497000 69.550000 69.547000 69.606000 69.546000 69.495000 69.409000 69.326000 69.398000 69.328000 69.265000 69.259000 69.320000 69.380000 69.267000 69.463000 69.040000 69.321000 69.418000 69.504000 69.288000 69.180000 68.813000 68.759000 
74.079000 73.600000 73.519000 73.423000 73.330000 73.289000 73.239000 73.195000 73.201000 73.149000 73.129000 73.088000 73.040000 73.006000 72.739000 72.644000 72.551000 72.628000 72.514000 72.492000 72.464000 72.397000 72.329000 72.215000 72.104000 72.131000 72.099000 72.015000 71.935000 71.838000 71.743000 71.651000 71.531000 71.419000 71.215000 71.015000 70.799000 70.674000 70.449000 70.225000 70.000000 70.000000 70.088000 69.952000 69.817000 69.880000 70.088000 69.452000 70.088000 69.410000 69.546000 69.525000 69.572000 69.400000 69.482000 69.534000 69.462000 69.554000 69.509000 69.400000 69.293000 69.235000 69.166000 69.143000 69.259000 69.344000 69.430000 69.515000 69.720000 69.504000 69.062000 69.115000 69.040000 68.910000 68.889000 68.759000 
73.948000 73.458000 73.383000 73.292000 73.202000 73.159000 73.120000 73.073000 73.082000 73.037000 72.930000 72.967000 72.928000 72.891000 72.864000 72.773000 72.665000 72.559000 72.459000 72.371000 72.342000 72.310000 72.246000 72.188000 72.072000 71.959000 71.997000 71.908000 71.875000 71.799000 71.641000 71.631000 71.534000 71.400000 71.281000 71.043000 70.806000 70.568000 70.693000 70.661000 70.526000 70.401000 70.203000 69.661000 69.880000 69.515000 69.640000 69.796000 69.775000 69.588000 69.702000 69.650000 69.535000 69.358000 69.410000 69.491000 69.558000 69.586000 69.609000 69.501000 69.359000 69.220000 69.073000 69.026000 69.127000 69.283000 69.223000 69.321000 69.472000 69.493000 69.115000 68.889000 68.716000 68.684000 68.662000 68.878000 
73.816000 73.316000 73.247000 73.151000 73.066000 73.032000 72.992000 72.955000 72.964000 72.925000 72.821000 72.778000 72.816000 72.775000 72.745000 72.674000 72.621000 72.513000 72.408000 72.313000 72.227000 72.193000 72.157000 72.097000 72.048000 71.929000 71.813000 71.866000 71.719000 71.735000 71.540000 71.548000 71.514000 71.416000 71.318000 71.099000 71.016000 70.828000 70.891000 70.776000 70.713000 70.495000 70.411000 70.411000 69.963000 70.599000 70.015000 69.734000 69.661000 69.671000 69.681000 69.567000 69.525000 69.473000 69.431000 69.390000 69.525000 69.671000 69.709000 69.580000 69.453000 69.272000 69.551000 68.910000 69.137000 69.407000 69.331000 69.515000 69.482000 69.407000 69.051000 68.846000 68.835000 68.792000 68.943000 68.932000 
73.685000 73.173000 73.112000 73.006000 72.916000 72.898000 72.866000 72.828000 72.846000 72.813000 72.710000 72.669000 72.705000 72.659000 72.626000 72.574000 72.538000 72.470000 72.362000 72.256000 72.166000 72.083000 72.045000 72.007000 71.939000 71.907000 71.784000 71.665000 71.656000 71.531000 71.438000 71.705000 71.454000 71.594000 71.287000 71.120000 71.094000 70.984000 70.870000 70.760000 70.651000 70.651000 70.557000 70.359000 70.036000 70.197000 69.723000 69.723000 69.786000 69.848000 69.880000 69.973000 70.025000 69.202000 69.098000 69.098000 69.306000 69.098000 69.148000 69.094000 69.223000 69.159000 69.169000 69.882000 69.741000 69.785000 69.709000 69.418000 69.450000 69.461000 69.385000 68.954000 68.943000 68.921000 68.910000 69.018000 
73.553000 73.031000 72.976000 72.874000 72.775000 72.753000 72.750000 72.703000 72.727000 72.701000 72.593000 72.559000 72.593000 72.544000 72.508000 72.474000 72.376000 72.386000 72.318000 72.211000 72.106000 72.020000 71.940000 71.898000 71.860000 71.782000 71.766000 71.639000 71.514000 71.445000 71.347000 71.454000 71.871000 71.328000 71.183000 71.360000 71.005000 70.724000 70.661000 70.703000 70.651000 70.588000 70.421000 70.255000 70.359000 69.796000 69.900000 70.109000 69.937000 69.911000 69.869000 69.666000 69.911000 69.640000 69.296000 69.275000 69.348000 69.421000 68.986000 69.159000 69.979000 69.752000 69.526000 69.472000 69.439000 69.741000 69.741000 69.461000 69.428000 69.385000 69.299000 69.148000 69.072000 69.321000 69.154000 68.986000 
73.422000 72.889000 72.841000 72.745000 72.649000 72.615000 72.633000 72.587000 72.609000 72.590000 72.559000 72.450000 72.481000 72.428000 72.389000 72.375000 72.341000 72.242000 72.235000 72.095000 72.007000 71.922000 71.873000 71.797000 71.754000 71.700000 71.626000 71.626000 71.495000 71.365000 71.235000 71.162000 70.995000 71.704000 71.047000 70.964000 71.089000 70.995000 70.703000 70.912000 70.724000 70.828000 70.390000 70.432000 69.890000 70.015000 69.786000 70.036000 69.973000 70.151000 69.911000 69.880000 69.452000 69.463000 69.421000 69.431000 69.431000 69.848000 69.795000 69.677000 69.601000 69.526000 69.633000 69.666000 69.601000 69.785000 69.785000 69.925000 69.817000 69.585000 69.353000 68.857000 69.121000 69.385000 69.105000 68.665000 
73.290000 72.747000 72.705000 72.623000 72.534000 72.492000 72.517000 72.472000 72.491000 72.478000 72.458000 72.397000 72.292000 72.312000 72.270000 72.164000 72.242000 72.148000 72.103000 71.980000 71.909000 71.825000 71.740000 71.726000 71.656000 71.611000 71.540000 71.503000 71.485000 71.464000 71.360000 71.391000 70.953000 70.724000 71.141000 70.901000 70.474000 70.557000 70.766000 70.724000 70.797000 70.349000 70.755000 69.994000 69.869000 69.806000 69.609000 69.827000 70.130000 69.848000 69.817000 69.827000 69.692000 69.567000 69.431000 69.598000 69.494000 70.276000 69.785000 69.795000 69.752000 69.698000 69.720000 69.752000 69.558000 69.428000 69.482000 69.628000 69.277000 69.536000 69.127000 69.396000 69.256000 69.126000 68.975000 68.846000 
73.159000 73.012000 72.569000 72.489000 72.416000 72.377000 72.401000 72.356000 72.372000 72.366000 72.356000 72.294000 72.228000 72.196000 72.151000 72.052000 71.956000 72.114000 71.970000 71.865000 71.811000 71.728000 71.657000 71.588000 71.580000 71.522000 71.451000 71.380000 71.485000 71.266000 71.422000 71.589000 71.376000 71.162000 70.818000 70.495000 70.474000 70.359000 70.588000 70.620000 70.640000 70.297000 70.098000 70.192000 69.984000 69.744000 69.754000 69.577000 69.775000 69.734000 69.734000 69.723000 69.609000 69.609000 69.681000 69.515000 69.431000 69.369000 69.741000 69.774000 69.752000 69.914000 69.833000 69.741000 69.439000 69.353000 69.472000 69.331000 69.458000 69.396000 69.288000 69.353000 68.986000 68.997000 68.846000 68.393000 
73.027000 72.812000 72.434000 72.350000 72.281000 72.262000 72.285000 72.241000 72.254000 72.254000 72.255000 72.190000 72.122000 72.081000 72.033000 71.937000 71.849000 72.026000 71.903000 71.792000 71.713000 71.631000 71.630000 71.564000 71.499000 71.433000 71.399000 71.422000 70.818000 71.230000 71.068000 70.984000 71.183000 70.818000 70.932000 70.682000 70.682000 70.547000 70.552000 70.724000 70.453000 70.609000 70.578000 70.307000 70.119000 70.130000 69.786000 69.734000 69.556000 69.556000 69.452000 69.379000 69.400000 69.327000 69.494000 69.463000 69.515000 69.681000 69.795000 69.741000 69.903000 70.065000 69.946000 69.585000 69.223000 69.342000 69.105000 69.223000 69.385000 69.288000 69.213000 69.105000 68.965000 68.490000 68.393000 68.479000 
72.896000 72.611000 72.298000 72.212000 72.142000 72.134000 72.169000 72.126000 72.135000 72.142000 72.154000 72.085000 72.014000 71.947000 71.914000 71.810000 71.728000 71.938000 71.798000 71.715000 71.617000 71.533000 71.552000 71.618000 71.683000 71.506000 71.526000 71.276000 71.037000 71.349000 71.214000 71.120000 70.932000 70.828000 70.891000 70.693000 70.693000 70.703000 70.724000 70.745000 70.651000 70.443000 70.234000 69.869000 69.968000 69.838000 69.994000 70.041000 69.953000 70.171000 69.973000 69.827000 69.765000 69.108000 69.077000 69.056000 69.160000 69.233000 69.395000 69.558000 69.860000 69.742000 69.428000 69.407000 69.143000 68.878000 69.374000 69.018000 68.619000 68.619000 68.522000 68.587000 68.511000 68.403000 68.349000 68.403000 
72.764000 72.411000 72.162000 72.299000 72.193000 72.007000 72.053000 72.012000 72.017000 72.030000 72.052000 71.979000 71.905000 71.836000 71.795000 71.752000 71.651000 71.849000 71.686000 71.573000 71.527000 71.394000 71.547000 71.474000 71.474000 71.495000 71.401000 71.318000 71.109000 70.953000 71.266000 71.057000 70.912000 70.766000 70.797000 70.839000 70.422000 70.661000 70.818000 70.244000 70.422000 70.526000 70.317000 70.098000 69.817000 70.338000 70.526000 69.973000 69.713000 70.140000 70.145000 70.265000 70.088000 69.598000 69.108000 69.035000 69.327000 69.369000 69.601000 69.638000 69.558000 69.418000 69.624000 69.299000 69.180000 69.473000 69.383000 69.428000 69.326000 69.145000 69.044000 68.852000 68.638000 68.423000 68.514000 68.457000 
72.633000 72.210000 72.027000 72.299000 72.166000 72.141000 72.180000 71.903000 71.899000 71.918000 71.951000 71.872000 71.794000 71.724000 71.676000 71.693000 71.713000 71.582000 71.569000 71.431000 71.424000 71.339000 71.172000 71.109000 71.537000 71.516000 71.339000 71.255000 71.203000 71.005000 70.891000 70.828000 70.755000 71.057000 70.953000 70.755000 71.016000 70.807000 70.057000 70.578000 70.203000 70.192000 69.577000 70.234000 70.119000 70.609000 70.505000 70.286000 70.474000 70.463000 70.182000 70.442000 70.119000 69.504000 69.241000 69.585000 69.532000 69.407000 69.416000 69.349000 69.303000 69.394000 69.394000 69.507000 69.518000 69.450000 69.405000 69.315000 69.089000 69.089000 69.044000 68.751000 68.412000 68.536000 68.446000 68.423000 
72.501000 72.240000 71.891000 72.271000 72.096000 71.935000 71.943000 71.921000 71.780000 71.806000 71.849000 71.769000 71.687000 71.617000 71.558000 71.576000 71.737000 71.673000 71.652000 71.289000 71.321000 71.332000 71.332000 71.279000 71.203000 71.410000 71.370000 71.214000 71.047000 70.880000 70.713000 71.162000 70.839000 70.849000 70.797000 70.786000 70.786000 70.422000 70.338000 70.682000 70.140000 70.349000 69.480000 70.449000 70.495000 70.324000 70.168000 70.609000 70.283000 70.387000 70.620000 70.043000 69.741000 69.741000 69.824000 70.012000 69.793000 69.657000 69.574000 69.574000 69.620000 69.574000 69.631000 69.699000 69.676000 69.574000 69.541000 69.383000 69.202000 69.416000 68.920000 68.796000 68.502000 68.615000 68.716000 68.773000 
72.370000 71.925000 72.241000 72.558000 72.515000 72.408000 71.705000 71.684000 71.662000 71.694000 71.748000 71.748000 71.588000 71.502000 71.439000 71.577000 71.694000 71.609000 71.417000 71.534000 71.332000 71.417000 71.492000 71.279000 71.268000 71.380000 71.283000 71.241000 71.016000 70.877000 71.262000 70.939000 71.075000 70.949000 70.877000 70.741000 70.783000 70.845000 70.720000 70.408000 70.033000 69.574000 69.605000 70.106000 69.991000 69.803000 69.762000 70.189000 70.001000 70.095000 69.741000 70.126000 69.939000 70.043000 70.168000 69.855000 70.053000 69.755000 69.789000 69.665000 69.552000 69.473000 69.473000 69.439000 69.518000 69.541000 69.315000 69.202000 69.315000 69.123000 68.672000 68.649000 68.649000 68.694000 68.570000 68.716000 
72.238000 71.609000 71.620000 71.833000 72.142000 72.099000 71.822000 71.726000 71.758000 71.684000 71.748000 71.737000 71.662000 71.385000 71.417000 71.588000 71.492000 71.428000 71.417000 71.470000 71.225000 71.225000 71.343000 71.385000 69.928000 70.981000 71.085000 71.022000 70.887000 70.626000 70.752000 71.033000 70.991000 71.116000 70.981000 70.793000 70.699000 70.856000 70.856000 70.626000 70.376000 70.137000 70.158000 70.262000 70.116000 70.262000 69.970000 69.762000 69.595000 69.470000 69.814000 70.033000 70.064000 70.043000 69.981000 70.022000 69.928000 69.947000 69.879000 70.060000 70.082000 69.902000 69.778000 69.687000 69.856000 69.270000 69.202000 69.202000 69.270000 68.514000 68.672000 68.694000 68.604000 68.626000 69.100000 68.954000 
72.014000 71.449000 71.289000 71.620000 71.758000 71.705000 71.598000 71.502000 71.556000 71.641000 71.694000 71.492000 71.385000 71.364000 71.577000 71.588000 71.353000 71.502000 71.460000 71.097000 71.151000 70.916000 71.257000 71.279000 70.439000 70.752000 70.866000 70.949000 70.699000 71.137000 71.106000 71.189000 71.189000 71.022000 70.699000 70.720000 70.793000 70.887000 70.772000 70.574000 70.564000 70.345000 70.178000 70.293000 69.762000 69.022000 69.866000 70.647000 69.522000 69.397000 70.116000 69.866000 70.012000 70.085000 70.189000 69.960000 69.793000 69.856000 69.653000 69.778000 69.856000 69.676000 69.721000 68.965000 69.292000 69.371000 69.315000 69.168000 68.491000 68.593000 68.796000 68.796000 68.875000 68.999000 69.089000 69.258000 
71.929000 71.470000 71.236000 71.407000 71.449000 71.673000 71.524000 71.524000 71.417000 71.353000 71.247000 71.097000 71.172000 71.087000 71.428000 71.268000 71.119000 71.204000 71.151000 71.140000 71.172000 70.501000 70.863000 70.895000 70.708000 70.445000 70.564000 70.897000 71.387000 71.127000 71.200000 71.043000 70.908000 70.699000 70.918000 70.085000 69.439000 69.845000 69.585000 69.564000 69.605000 69.439000 69.595000 69.564000 69.418000 69.157000 70.022000 69.397000 69.012000 70.001000 70.074000 70.147000 70.074000 70.126000 70.074000 69.814000 69.553000 69.563000 69.574000 69.202000 69.112000 69.179000 69.405000 69.484000 69.258000 69.247000 68.559000 68.660000 68.660000 68.728000 68.863000 68.807000 69.055000 68.592000 69.568000 69.556000 
71.748000 71.598000 71.311000 71.300000 71.801000 71.481000 71.407000 71.332000 71.385000 71.289000 71.311000 71.055000 71.087000 71.002000 71.183000 70.458000 70.469000 70.906000 71.055000 70.980000 70.767000 70.255000 70.660000 70.671000 70.022000 70.137000 70.231000 70.470000 71.043000 71.220000 71.116000 71.012000 70.856000 69.887000 69.918000 69.845000 69.741000 69.720000 69.647000 69.585000 69.522000 69.522000 69.720000 69.605000 69.574000 69.449000 70.033000 70.012000 70.001000 69.001000 69.970000 70.210000 69.970000 69.866000 69.720000 69.480000 69.564000 69.902000 69.552000 69.416000 69.450000 69.428000 69.337000 69.225000 68.514000 68.491000 68.638000 68.581000 68.683000 68.716000 68.931000 69.604000 69.592000 69.580000 69.258000 69.303000 
71.225000 71.311000 71.151000 71.172000 71.140000 71.225000 71.311000 71.215000 71.225000 71.108000 71.225000 71.108000 70.511000 70.405000 70.682000 70.767000 70.778000 70.597000 70.586000 70.032000 70.277000 70.351000 70.458000 70.287000 70.043000 70.053000 70.033000 70.116000 70.616000 70.970000 70.887000 70.126000 69.991000 69.835000 69.918000 69.887000 69.835000 69.793000 69.605000 69.585000 69.647000 70.091000 70.080000 70.069000 70.058000 70.044000 69.637000 69.366000 69.990000 69.043000 69.439000 69.324000 69.657000 69.678000 69.241000 69.387000 68.636000 69.552000 69.518000 69.428000 69.416000 69.383000 68.796000 68.547000 68.694000 68.683000 68.694000 68.728000 68.942000 69.639000 69.627000 69.616000 69.653000 69.586000 69.665000 69.642000 
71.087000 71.140000 71.129000 71.076000 71.119000 71.087000 71.108000 70.980000 70.969000 70.916000 70.863000 70.724000 70.575000 70.426000 70.287000 70.255000 70.202000 70.170000 70.170000 70.010000 70.255000 70.351000 70.437000 70.245000 69.668000 69.939000 70.231000 70.064000 69.939000 70.033000 70.397000 69.897000 69.928000 69.960000 70.001000 69.876000 69.897000 69.897000 69.845000 69.782000 69.793000 70.102000 69.824000 69.637000 69.501000 69.460000 69.376000 69.251000 69.168000 69.977000 69.965000 68.965000 69.199000 69.210000 68.907000 68.772000 68.730000 69.394000 69.597000 69.439000 68.807000 68.773000 68.818000 68.751000 68.852000 69.055000 68.698000 69.675000 69.663000 69.651000 70.172000 69.992000 70.082000 69.981000 69.665000 69.676000 
71.300000 71.215000 71.353000 71.119000 71.172000 70.927000 70.820000 70.746000 70.788000 70.756000 70.682000 70.565000 70.522000 70.469000 70.373000 70.415000 70.469000 70.383000 70.287000 70.181000 70.128000 70.341000 70.309000 70.272000 70.272000 70.439000 69.960000 69.970000 70.220000 70.262000 70.178000 70.001000 70.137000 70.001000 70.074000 70.335000 70.283000 69.187000 70.001000 70.139000 70.126000 70.113000 69.762000 69.282000 69.335000 69.376000 69.293000 69.210000 69.074000 69.032000 68.977000 69.954000 69.942000 68.942000 68.959000 68.772000 69.055000 69.428000 68.716000 68.683000 68.751000 68.751000 68.762000 68.722000 68.722000 69.698000 69.687000 69.687000 71.030000 71.064000 70.218000 70.161000 70.172000 69.699000 69.879000 69.699000 
71.598000 71.449000 71.321000 71.225000 71.076000 70.895000 70.810000 70.831000 70.714000 70.703000 70.660000 70.607000 70.543000 70.394000 70.650000 70.522000 70.426000 70.373000 70.287000 70.170000 70.266000 70.650000 71.257000 71.220000 70.970000 70.689000 70.616000 70.533000 70.460000 70.303000 70.137000 70.220000 70.356000 70.460000 70.470000 70.198000 70.187000 70.176000 70.162000 70.150000 69.855000 69.730000 69.532000 69.220000 69.230000 69.314000 69.251000 69.074000 69.095000 68.928000 68.954000 68.954000 69.930000 69.919000 68.919000 68.896000 68.830000 68.931000 68.638000 68.638000 68.716000 68.784000 68.965000 69.722000 69.710000 68.965000 69.371000 72.576000 71.335000 70.477000 70.613000 70.127000 69.574000 70.014000 70.037000 69.879000 
71.417000 71.481000 71.247000 71.332000 71.279000 71.044000 70.969000 70.906000 70.820000 70.682000 70.597000 70.501000 70.447000 70.682000 70.895000 70.650000 70.554000 70.383000 70.341000 70.319000 70.820000 71.364000 71.449000 70.960000 70.866000 70.783000 70.585000 70.595000 70.689000 70.314000 70.491000 70.245000 70.234000 70.222000 70.210000 70.647000 70.887000 70.210000 70.189000 70.491000 70.272000 69.699000 69.491000 69.397000 69.199000 69.262000 69.199000 69.053000 68.782000 68.761000 68.876000 68.930000 68.930000 69.907000 69.896000 68.896000 68.897000 68.751000 68.638000 68.771000 68.863000 68.771000 69.733000 69.303000 69.416000 69.947000 71.109000 71.177000 71.008000 70.872000 70.635000 69.936000 70.263000 70.872000 70.127000 70.048000 
71.002000 71.257000 71.002000 71.065000 71.055000 71.012000 70.948000 71.321000 71.193000 71.012000 70.852000 70.895000 70.991000 71.023000 71.321000 71.087000 71.012000 70.799000 71.065000 71.449000 71.481000 71.321000 71.108000 70.960000 71.064000 70.970000 70.522000 70.095000 70.095000 70.314000 70.268000 70.257000 70.272000 70.345000 70.428000 70.793000 70.626000 70.710000 70.491000 70.585000 70.387000 70.210000 69.960000 69.605000 69.460000 69.501000 69.147000 69.074000 69.074000 68.928000 69.074000 69.032000 68.907000 69.872000 69.886000 69.157000 68.852000 68.806000 69.010000 68.794000 69.771000 69.759000 69.746000 69.856000 70.771000 71.482000 71.256000 71.324000 71.279000 71.030000 70.206000 70.748000 70.297000 70.319000 70.195000 70.206000 
70.788000 70.852000 70.810000 70.852000 70.884000 70.884000 70.874000 71.279000 71.374000 71.407000 71.385000 71.332000 71.321000 71.151000 71.449000 71.161000 71.140000 71.215000 71.311000 71.215000 71.183000 71.097000 71.172000 71.075000 70.866000 70.752000 70.137000 70.064000 70.241000 70.279000 70.303000 70.626000 70.897000 71.012000 70.752000 70.710000 70.668000 70.678000 70.668000 70.366000 69.793000 70.231000 69.939000 69.720000 69.345000 69.355000 69.272000 69.189000 69.136000 69.126000 69.574000 72.252000 73.106000 69.857000 69.843000 68.886000 68.830000 69.806000 69.794000 69.782000 70.974000 70.466000 70.172000 69.665000 70.782000 71.019000 71.121000 71.538000 71.888000 71.549000 71.087000 71.030000 70.906000 70.218000 70.376000 70.443000 
70.799000 70.874000 70.703000 70.852000 71.002000 70.884000 70.895000 70.959000 71.065000 71.502000 71.577000 71.492000 71.449000 71.023000 71.225000 71.279000 71.300000 71.151000 71.076000 71.087000 71.055000 71.108000 71.140000 70.918000 70.356000 70.189000 70.074000 70.220000 70.291000 71.043000 71.127000 71.137000 70.887000 70.835000 70.595000 70.772000 70.835000 71.075000 71.043000 70.616000 70.293000 70.043000 69.887000 70.178000 69.689000 69.324000 69.366000 69.230000 70.699000 73.836000 75.961000 75.805000 75.586000 75.888000 75.607000 69.830000 69.818000 73.558000 73.220000 72.204000 71.741000 71.369000 70.929000 70.410000 70.714000 70.917000 71.346000 72.351000 72.170000 71.877000 71.470000 71.358000 71.267000 70.737000 70.511000 70.985000 
70.735000 70.724000 70.671000 70.639000 71.119000 71.129000 70.969000 70.863000 70.991000 71.588000 71.641000 71.598000 71.396000 71.332000 71.183000 71.257000 71.087000 71.023000 71.172000 71.044000 71.055000 71.012000 70.746000 70.324000 70.356000 70.356000 70.303000 70.303000 71.075000 71.033000 71.054000 71.033000 70.877000 70.804000 70.710000 70.804000 70.835000 71.252000 71.418000 70.960000 70.845000 71.158000 71.012000 71.002000 70.981000 71.700000 73.335000 75.648000 77.826000 78.389000 78.055000 77.232000 77.326000 77.305000 77.128000 76.515000 75.612000 74.743000 74.258000 73.242000 72.520000 71.820000 71.358000 70.883000 70.658000 71.166000 71.967000 72.373000 72.452000 72.102000 71.809000 71.527000 71.414000 70.635000 71.154000 72.102000 
70.415000 70.660000 70.618000 70.703000 71.012000 70.927000 70.916000 70.938000 70.841000 71.012000 71.257000 71.289000 71.257000 71.460000 71.225000 71.076000 71.183000 71.343000 71.321000 71.279000 71.172000 70.415000 70.397000 70.210000 70.126000 70.199000 70.315000 70.929000 71.408000 71.147000 71.137000 71.304000 71.116000 71.002000 70.918000 70.918000 71.293000 71.398000 71.679000 73.325000 74.815000 75.107000 75.826000 76.336000 76.815000 78.212000 79.139000 79.879000 79.899000 79.754000 79.222000 78.795000 78.983000 78.628000 78.180000 77.486000 76.730000 75.499000 74.732000 74.010000 73.197000 72.362000 71.877000 71.256000 70.398000 70.647000 72.170000 72.915000 72.757000 72.520000 71.798000 71.470000 70.895000 71.188000 72.283000 73.998000 
70.663000 70.501000 70.351000 70.362000 70.362000 70.415000 70.522000 70.746000 70.810000 70.778000 70.650000 70.767000 70.810000 70.820000 71.172000 71.247000 71.492000 71.449000 71.151000 70.565000 70.575000 70.554000 70.387000 70.303000 70.366000 70.327000 71.533000 72.033000 71.814000 71.439000 71.356000 71.470000 71.502000 71.345000 71.637000 72.940000 75.398000 74.888000 73.096000 73.596000 75.669000 76.409000 77.295000 78.410000 79.045000 79.754000 80.441000 80.473000 80.545000 80.410000 80.275000 80.045000 79.743000 79.347000 79.056000 78.524000 77.948000 77.260000 76.436000 75.138000 73.818000 73.096000 72.475000 71.956000 71.143000 71.177000 72.418000 73.141000 73.050000 72.791000 72.148000 71.899000 71.008000 72.430000 73.942000 76.673000 
70.789000 71.247000 69.062000 68.827000 69.650000 69.650000 69.650000 69.640000 70.586000 70.671000 69.808000 70.565000 70.426000 70.362000 70.330000 70.373000 70.490000 70.458000 70.423000 70.412000 70.401000 70.128000 70.501000 70.574000 70.339000 73.429000 73.606000 72.992000 72.200000 71.846000 71.595000 71.408000 71.616000 72.481000 74.711000 77.899000 78.055000 77.138000 75.628000 74.263000 75.398000 76.399000 77.909000 79.118000 80.014000 80.191000 80.670000 81.066000 81.296000 81.077000 80.816000 80.483000 80.087000 79.837000 79.722000 79.709000 79.506000 78.772000 77.824000 76.865000 75.928000 74.992000 73.919000 72.633000 71.719000 71.594000 72.441000 73.445000 73.412000 73.073000 72.689000 72.215000 71.549000 73.547000 75.973000 79.720000 
70.709000 70.607000 70.831000 70.671000 70.843000 70.650000 70.640000 70.629000 70.615000 70.602000 70.593000 70.853000 69.527000 69.518000 70.948000 70.565000 70.458000 70.446000 70.434000 70.863000 70.389000 70.377000 70.365000 70.352000 74.805000 75.648000 75.284000 73.783000 72.887000 72.096000 72.148000 72.283000 72.731000 74.638000 78.034000 79.483000 79.118000 78.701000 77.222000 75.086000 75.138000 76.555000 77.784000 79.326000 80.212000 80.691000 81.087000 81.514000 81.587000 81.316000 81.285000 81.129000 80.837000 80.566000 80.462000 80.330000 80.081000 79.754000 78.975000 78.321000 77.565000 76.809000 75.387000 73.513000 71.516000 72.509000 73.129000 73.773000 73.829000 73.547000 72.938000 72.339000 72.193000 74.653000 78.197000 81.695000 
70.740000 70.723000 70.705000 70.687000 70.673000 70.658000 71.323000 71.133000 70.993000 70.583000 69.602000 70.527000 70.518000 70.506000 70.481000 70.469000 70.913000 70.823000 70.843000 70.913000 70.972000 70.963000 72.419000 73.742000 76.034000 77.347000 77.024000 75.117000 73.815000 73.075000 72.752000 73.085000 73.825000 75.586000 78.389000 79.743000 80.035000 79.399000 77.889000 75.409000 75.721000 76.857000 77.597000 78.618000 79.670000 80.431000 81.712000 82.212000 82.181000 81.535000 81.546000 81.327000 81.254000 81.098000 81.379000 80.928000 80.533000 80.285000 80.172000 79.969000 79.156000 78.219000 76.357000 73.739000 72.385000 73.468000 74.608000 74.901000 74.755000 74.089000 73.208000 71.786000 73.355000 75.985000 79.562000 81.842000 
70.017000 69.740000 70.493000 70.853000 71.802000 71.442000 71.323000 71.213000 70.803000 70.570000 70.553000 70.538000 71.073000 70.493000 71.003000 70.623000 70.733000 70.633000 70.483000 70.813000 71.822000 71.452000 71.837000 73.177000 75.079000 77.404000 77.522000 76.367000 75.044000 74.273000 73.658000 73.617000 74.440000 76.201000 78.868000 80.598000 80.473000 79.931000 77.826000 75.523000 76.378000 77.232000 78.003000 79.066000 80.233000 81.806000 82.567000 82.796000 81.921000 80.743000 80.775000 79.827000 80.775000 81.171000 81.514000 81.346000 80.838000 80.691000 80.510000 80.341000 79.844000 78.930000 76.233000 72.971000 74.867000 76.013000 77.211000 77.060000 76.385000 75.094000 73.743000 72.615000 74.722000 77.943000 80.037000 80.969000 
70.421000 70.993000 71.652000 71.023000 71.772000 71.542000 71.442000 71.252000 70.833000 70.903000 71.902000 71.213000 71.013000 70.833000 70.793000 71.433000 71.622000 71.642000 71.822000 72.232000 72.752000 72.252000 71.827000 71.985000 72.744000 74.488000 76.862000 77.542000 77.010000 76.182000 75.276000 74.685000 75.294000 77.065000 79.795000 81.171000 81.004000 80.160000 77.732000 76.023000 77.441000 77.982000 78.785000 79.764000 81.171000 82.275000 83.369000 82.193000 81.316000 80.124000 79.473000 79.296000 79.582000 80.261000 81.026000 81.503000 81.456000 81.200000 80.758000 80.456000 79.339000 77.524000 74.930000 74.919000 78.257000 79.398000 79.257000 78.571000 77.687000 76.081000 74.245000 72.278000 74.802000 78.526000 80.073000 79.734000 
71.091000 71.582000 71.932000 71.682000 72.082000 72.142000 72.252000 71.403000 71.103000 70.793000 71.612000 72.182000 71.142000 71.542000 71.722000 71.882000 71.982000 72.032000 72.322000 72.492000 72.932000 73.372000 72.448000 72.655000 72.655000 72.359000 73.946000 77.040000 78.527000 78.291000 77.128000 76.370000 77.276000 78.173000 80.173000 81.720000 81.207000 79.375000 77.256000 76.941000 77.907000 79.050000 79.582000 80.143000 81.542000 82.784000 83.001000 81.276000 80.311000 79.690000 79.345000 78.941000 78.971000 79.434000 80.909000 81.562000 81.270000 80.921000 80.177000 79.724000 78.292000 76.244000 74.534000 76.023000 79.304000 80.909000 80.851000 80.294000 78.687000 76.477000 74.198000 73.068000 73.929000 75.756000 76.617000 76.256000 
71.364000 71.442000 72.012000 72.162000 72.242000 71.952000 71.712000 71.343000 71.852000 71.263000 71.982000 72.342000 72.372000 72.222000 72.102000 72.232000 72.412000 72.752000 72.992000 73.022000 73.362000 73.562000 74.113000 74.439000 74.695000 73.591000 72.497000 74.458000 78.133000 79.651000 79.158000 79.119000 78.951000 80.153000 81.808000 82.577000 80.764000 78.596000 77.128000 77.680000 78.626000 79.395000 80.015000 80.271000 81.158000 82.301000 81.651000 80.055000 79.385000 79.030000 78.695000 78.429000 78.330000 78.350000 79.269000 80.572000 80.781000 80.049000 79.073000 77.943000 76.909000 75.732000 74.871000 76.779000 79.734000 81.398000 81.258000 80.572000 78.979000 77.594000 75.895000 73.603000 72.743000 73.976000 75.605000 75.660000 
71.459000 71.422000 72.412000 71.952000 72.152000 71.982000 71.752000 71.502000 72.172000 73.212000 73.582000 74.102000 73.832000 73.152000 72.722000 73.102000 73.442000 73.632000 73.942000 74.092000 74.082000 74.692000 75.394000 76.508000 77.010000 75.542000 73.256000 73.286000 77.365000 80.449000 81.454000 81.306000 81.375000 82.429000 83.326000 82.873000 80.074000 78.094000 77.483000 78.133000 79.040000 79.858000 80.646000 80.991000 81.542000 81.562000 80.616000 79.749000 79.040000 78.468000 78.133000 77.936000 77.808000 77.246000 77.781000 78.734000 78.875000 78.257000 77.664000 76.885000 75.802000 75.337000 75.162000 77.733000 80.130000 81.794000 81.318000 80.828000 79.724000 78.943000 76.814000 74.150000 73.307000 73.440000 74.292000 76.229000 
71.530000 71.662000 72.242000 71.742000 72.302000 72.332000 72.192000 72.272000 72.852000 73.892000 74.312000 74.422000 74.242000 73.682000 73.382000 74.192000 74.362000 74.842000 74.791000 74.992000 75.021000 75.411000 76.340000 78.212000 78.577000 77.109000 74.695000 72.882000 77.138000 80.232000 81.641000 82.469000 82.971000 83.789000 83.621000 82.025000 79.503000 77.986000 78.045000 78.636000 79.473000 80.478000 81.257000 81.808000 81.996000 81.316000 80.616000 79.749000 79.138000 78.350000 77.936000 77.798000 77.660000 77.513000 77.373000 76.768000 76.698000 76.490000 76.500000 75.966000 75.628000 75.245000 76.036000 78.443000 80.456000 81.794000 81.456000 80.630000 79.583000 78.443000 75.000000 74.154000 73.871000 73.960000 74.045000 75.819000 
71.751000 71.552000 71.862000 72.242000 72.442000 72.522000 72.542000 72.722000 73.522000 74.262000 75.191000 75.211000 74.981000 74.402000 74.432000 75.071000 75.761000 75.721000 75.971000 76.101000 76.191000 76.211000 77.227000 78.892000 80.055000 78.547000 75.374000 72.832000 77.798000 80.557000 81.808000 82.557000 83.198000 83.533000 82.715000 80.656000 79.217000 78.567000 78.882000 79.542000 80.024000 80.683000 81.200000 81.433000 80.946000 80.459000 79.972000 79.485000 78.999000 78.512000 78.025000 77.808000 77.660000 77.651000 77.675000 77.083000 76.803000 76.023000 75.617000 75.360000 75.197000 75.489000 76.605000 78.932000 81.177000 81.794000 81.166000 79.261000 77.815000 76.721000 75.000000 74.436000 74.436000 74.480000 74.522000 75.410000 
72.152000 72.432000 72.342000 72.512000 72.502000 72.792000 72.922000 73.152000 73.752000 74.672000 75.531000 75.861000 75.951000 75.621000 75.551000 76.431000 76.951000 77.311000 77.441000 77.461000 77.611000 77.731000 78.143000 79.158000 80.695000 79.670000 75.572000 73.680000 77.907000 80.872000 82.203000 82.193000 81.887000 81.375000 80.685000 79.907000 79.197000 79.010000 78.917000 78.823000 80.435000 80.199000 79.964000 79.729000 79.493000 79.258000 79.023000 78.788000 78.552000 78.317000 78.082000 77.846000 77.611000 77.591000 77.861000 78.047000 77.281000 76.187000 75.686000 75.443000 75.767000 76.315000 77.315000 79.526000 81.980000 80.584000 79.188000 79.111000 77.055000 75.000000 75.000000 74.718000 75.000000 75.000000 75.000000 75.000000 
72.721000 72.922000 72.732000 71.932000 72.592000 72.712000 72.772000 73.672000 74.522000 74.402000 75.761000 76.201000 76.221000 76.571000 76.841000 78.251000 79.200000 79.420000 79.510000 79.710000 79.690000 79.300000 79.000000 80.281000 81.365000 79.257000 75.325000 73.502000 77.296000 79.897000 80.606000 79.828000 79.059000 78.872000 79.217000 79.552000 79.710000 79.171000 79.055000 80.214000 80.081000 79.948000 79.815000 79.682000 79.549000 79.415000 79.282000 79.149000 79.016000 78.883000 78.750000 78.617000 78.483000 78.350000 78.217000 78.084000 77.037000 76.407000 76.187000 76.093000 76.698000 77.386000 78.583000 78.022000 78.621000 80.235000 78.723000 77.482000 77.055000 75.000000 74.859000 75.000000 75.000000 75.000000 75.000000 75.000000 
